# .PCD v0.7 - Point Cloud Data file format
VERSION 0.7
FIELDS x y z intensity ring
SIZE 4 4 4 4 2
TYPE F F F F U
COUNT 1 1 1 1 1
WIDTH 1310
HEIGHT 1
VIEWPOINT 0 0 0 1 0 0 0
POINTS 1310
DATA ascii
3.3133786 -10.008673 -0.13695027 12 2
4.0562258 -13.879704 0.11695088 11 4
6.3453517 -26.698372 2.8025706 10 26
20.695686 -39.958828 4.2614555 2 27
6.210258 -26.107546 3.8592384 9 28
6.1779275 -9.710494 3.0201819 3 29
5.8409314 -8.8993969 4.3415427 36 31
9.4770994 -16.46875 1.8149669 15 21
6.9160452 -14.377625 1.7002712 6 20
5.270196 -13.64146 1.623929 21 19
4.3911896 -16.072905 1.5182952 9 18
5.8095355 -8.8741779 1.9849092 26 25
4.9347739 -9.1155672 1.9288208 15 24
5.2683249 -13.634778 1.9464366 34 23
4.3964281 -16.102385 1.8882452 14 22
3.4681599 -4.0063887 -0.35763901 8 0
4.3547525 -5.8320832 0.016885435 4 1
4.4864287 -6.16362 0.75487179 7 3
8.4745998 -14.340777 0.68305403 8 9
6.5621147 -13.522284 0.69368857 6 8
5.1519403 -13.275255 0.65621024 5 7
4.0668769 -14.274544 0.51638645 10 6
8.4249334 -14.314651 1.0661492 17 13
6.5990596 -13.534949 1.0353891 5 12
5.2090206 -13.446836 0.97149312 21 11
4.0928855 -14.3195 0.85597664 14 10
5.1821485 -13.514685 1.3004529 11 15
4.0346546 -14.310279 1.1942213 23 14
3.2792861 -10.019752 -0.1378427 11 2
4.0095172 -13.89829 0.11583248 10 4
6.2329416 -26.606867 2.7980988 8 26
20.571104 -40.057102 4.2634759 2 27
6.1199617 -26.128702 3.8596444 10 28
6.1482792 -9.7356882 3.0214021 8 29
5.8014379 -8.8970661 4.3363662 29 31
9.3936081 -16.442369 1.8145899 13 21
5.2356701 -13.702753 1.6236581 24 19
4.3419776 -16.122263 1.517848 8 18
5.7828679 -8.8981409 1.9851986 32 25
6.6352448 -13.784322 2.0458951 11 24
5.2272644 -13.671937 1.9468727 34 23
4.3427958 -16.127136 1.8884177 15 22
3.4541645 -4.0131998 -0.3576391 8 0
4.3470368 -5.8680997 0.0093080634 4 1
4.4691811 -6.1829028 0.75349557 8 3
5.6394873 -8.5921831 0.80628544 4 5
8.3898487 -14.293077 0.68816096 9 9
6.4941249 -13.483699 0.69787395 7 8
5.0977693 -13.259012 0.65848565 5 7
4.0187559 -14.293199 0.51557022 9 6
8.3360605 -14.257606 1.0697455 19 13
6.5500431 -13.54795 1.0356191 5 12
5.1581402 -13.44521 0.97227794 32 11
4.0428882 -14.328428 0.85597646 13 10
9.3213367 -16.313679 1.3915488 10 17
6.4892578 -13.470727 1.3677832 12 16
5.1504693 -13.585354 1.2987354 11 15
3.989783 -14.348549 1.193174 18 14
3.245137 -10.030714 -0.138735 11 2
3.9609904 -13.90693 0.11583231 10 4
6.1656885 -26.770855 2.8041959 4 26
19.805046 -38.796112 4.1786046 3 27
6.023644 -26.11517 3.8572068 9 28
6.1227541 -9.7697639 3.0238428 50 29
5.7182164 -8.8030901 4.3040142 42 31
9.3168411 -16.42915 1.814307 14 21
6.5080123 -13.579836 1.700274 16 20
5.1917014 -13.730163 1.6235766 34 19
4.290761 -16.161615 1.5175126 8 18
5.7517838 -8.9130011 1.9851985 32 25
6.5335793 -13.656707 2.0422437 28 24
5.1859918 -13.708973 1.9473088 32 23
4.2898698 -16.156637 1.8886478 15 22
3.4401462 -4.0199618 -0.35763916 9 0
4.3370109 -5.8997722 0.0029934898 5 1
4.4497085 -6.1976676 0.75280732 8 3
5.6073284 -8.6020536 0.80675417 5 5
8.3033648 -14.240458 0.69358701 9 9
5.045043 -13.24737 0.66038179 6 7
3.9713788 -14.316605 0.51434618 9 6
8.2412434 -14.186575 1.0739411 21 13
6.463027 -13.457659 1.0409163 6 12
5.1111879 -13.457863 0.97227776 23 11
4.0005097 -14.381452 0.8533622 13 10
9.2085838 -16.223434 1.3937724 10 17
6.3941212 -13.356584 1.371033 11 16
5.1132383 -13.636638 1.2975903 9 15
3.9405169 -14.362046 1.1929994 18 14
3.210115 -10.03671 -0.13873512 11 2
3.9124339 -13.915401 0.11583214 10 4
6.0738921 -26.796795 2.8046021 4 26
5.6628923 -8.8972178 2.2658403 39 27
5.857018 -9.2914867 2.9567211 17 29
5.356503 -23.291353 5.9957719 19 30
5.6460547 -8.7304602 4.2781324 40 31
9.1827106 -16.293482 1.8131763 18 21
5.1667514 -13.829942 1.6230892 31 19
4.2384777 -16.195877 1.517233 8 18
5.7185121 -8.9232349 1.9850535 42 25
5.1457834 -13.75072 1.947832 31 23
4.2351165 -16.176102 1.8887628 17 22
3.4261041 -4.0266752 -0.35763922 9 0
4.328877 -5.9358149 -0.004584122 5 1
4.4301691 -6.2123723 0.75211912 10 3
8.1938534 -14.137798 0.70252413 10 9
6.3489537 -13.377462 0.7083376 13 8
4.9911737 -13.230699 0.6626572 7 7
3.9230413 -14.334939 0.51353002 8 6
8.1491318 -14.119578 1.077937 24 13
6.3920903 -13.409163 1.0441406 7 12
5.0692849 -13.489664 0.9712308 23 11
3.9552917 -14.419586 0.85161936 13 10
9.1348743 -16.214024 1.3944564 8 17
6.3440666 -13.36415 1.3712649 11 16
5.0756931 -13.687826 1.2964451 8 15
3.8919995 -14.380303 1.1926501 18 14
3.1758733 -10.047439 -0.13962755 14 2
3.8638461 -13.923702 0.11583197 10 4
5.6276145 -8.9026003 2.2652628 9 27
5.6176686 -8.8609905 2.8963113 15 29
5.6176124 -8.7492151 4.2794266 39 31
9.1236744 -16.315638 1.8131446 17 21
6.3317342 -13.388608 1.7002745 24 20
5.1197152 -13.847461 1.6230619 31 19
4.1900477 -16.254635 1.5166742 8 18
5.710649 -8.9876642 1.9866465 2 25
6.3873129 -13.550357 2.0387099 33 24
5.1103683 -13.811706 1.9487042 28 23
4.1810727 -16.200315 1.8889353 21 22
3.4139771 -4.037437 -0.35975003 9 0
4.3163986 -5.96312 -0.0096357781 6 1
4.4084687 -6.222528 0.752119 9 3
8.1238546 -14.129867 0.2347932 4 5
8.0893812 -14.043583 0.71082294 8 9
6.2786975 -13.328527 0.71322054 14 8
4.9387136 -13.218639 0.6645534 7 7
3.8754158 -14.358027 0.51230597 8 6
8.0575714 -14.052113 1.0819328 20 13
6.3130856 -13.336844 1.0485165 8 12
5.0121245 -13.463346 0.97332424 26 11
3.9139183 -14.482204 0.84842414 11 10
9.074007 -16.231478 1.3946272 8 17
6.2653828 -13.291525 1.3734701 11 16
5.0465302 -13.772805 1.2942982 8 15
3.8425884 -14.393462 1.1924754 21 14
3.1415787 -10.058049 -0.14051996 17 2
3.8144221 -13.926932 0.11639092 10 4
5.5114937 -24.525305 2.7096822 3 26
5.5965161 -8.9169207 2.2652626 9 27
5.4170718 -24.104679 3.6874175 5 28
5.1685143 -23.157297 5.9661846 15 30
5.5809293 -8.7503672 4.2755442 37 31
9.0330782 -16.269512 1.812642 17 21
6.2614737 -13.339419 1.7002745 28 20
5.0937481 -13.947146 1.6225744 25 19
4.1420336 -16.318192 1.5160593 8 18
6.318181 -13.506084 2.0371785 33 24
5.0708427 -13.858084 1.9493147 32 23
4.1332479 -16.26384 1.8895684 17 22
3.3998742 -4.0440588 -0.35975009 10 0
4.3058124 -5.9947934 -0.015950354 7 1
4.3888111 -6.237103 0.75143075 8 3
7.9940577 -13.966912 0.71784502 6 9
6.2154984 -13.298074 0.71670836 13 8
4.8863816 -13.206377 0.66644943 7 7
3.8268654 -14.376037 0.51148987 8 6
7.9770436 -14.006856 1.0849296 18 13
6.2497377 -13.30648 1.0508195 8 12
4.955193 -13.436795 0.97541761 26 11
3.8665457 -14.510216 0.84726214 11 10
9.0089159 -16.239632 1.394969 9 17
6.210618 -13.284483 1.3740503 10 16
5.0192704 -13.867437 1.291865 7 15
3.793895 -14.411389 1.1921263 20 14
3.106462 -10.063684 -0.14052008 11 2
3.7657948 -13.934893 0.11639076 11 4
5.5199056 -8.8311663 2.2589118 3 27
5.4486775 -8.6546392 2.8645809 39 29
5.0786672 -23.111591 5.9554257 31 30
5.4794993 -8.6110573 4.2302508 3 31
8.9845781 -16.313852 1.8127673 14 21
6.1982641 -13.308767 1.7002745 24 20
5.0732617 -14.071054 1.6219516 25 19
4.0881686 -16.347034 1.5158356 9 18
6.2627058 -13.499213 2.0365894 34 24
4.0803504 -16.29759 1.8898561 17 22
3.3857477 -4.050631 -0.35975018 10 0
4.3092723 -6.0571938 -0.031105241 8 1
4.3670239 -6.2471142 0.75143063 6 3
5.4597864 -8.5996342 0.81284821 7 5
7.9348321 -13.9668 0.71944076 6 9
6.1591649 -13.286173 0.7188009 13 8
4.835393 -13.198744 0.66796643 7 7
3.7782202 -14.393883 0.5106737 8 6
7.8948302 -13.956668 1.0881262 19 13
6.1982822 -13.308813 1.0515103 8 12
4.9094925 -13.453581 0.97515577 30 11
3.8002586 -14.419753 0.85307109 16 10
8.9230433 -16.202072 1.3961662 13 17
6.1526585 -13.267786 1.3748626 10 16
4.9853473 -13.937799 1.2901473 6 15
3.7451031 -14.429152 1.191777 23 14
3.0713243 -10.069195 -0.1405202 8 2
3.7171416 -13.942682 0.11639059 12 4
5.2235546 -23.968847 3.6740127 13 28
5.3551259 -8.5281296 2.8456647 43 29
4.994308 -23.099586 5.9509425 76 30
5.449419 -8.6248608 4.2302508 3 31
6.1484885 -13.315609 1.7002743 23 20
5.300004 -15.189505 1.6157789 3 19
4.0462937 -16.454765 1.5147181 6 18
6.1958256 -13.459077 2.0351758 33 24
4.0416889 -16.425064 1.8912376 15 22
3.371599 -4.0571542 -0.35975024 9 0
4.3533926 -6.2750859 0.74867815 6 3
5.4214869 -8.5952501 0.81472343 4 5
7.8384047 -13.88473 0.72678196 5 9
6.0964451 -13.255186 0.72228873 14 8
4.7845006 -13.190916 0.66948324 7 7
3.7302351 -14.416489 0.50944966 9 6
7.819241 -13.919725 1.0907235 20 13
6.1337166 -13.273216 1.0540437 12 12
4.8456311 -13.397531 0.97881931 30 11
3.7598455 -14.491786 0.84929502 14 10
8.7962141 -16.073063 1.3990741 5 17
6.0899673 -13.236674 1.3760231 12 16
4.9783878 -14.119728 1.285138 6 15
3.7006922 -14.476393 1.1903807 27 14
3.035435 -10.069719 -0.13962802 8 2
3.6684618 -13.950301 0.11639042 15 4
5.213861 -24.299158 2.6987054 14 26
5.1316757 -23.927464 3.6695442 17 28
5.3293886 -8.550559 2.8468847 42 29
4.9136572 -23.111609 5.950942 86 30
5.4352417 -8.6737509 4.240603 31 31
6.0938377 -13.308084 1.7002742 22 20
5.362689 -15.673626 1.6131527 4 19
9.0215473 -16.662487 2.2287946 12 25
6.1357961 -13.437541 2.0342333 35 24
3.9910276 -16.478298 1.8917556 14 22
3.3574276 -4.0636282 -0.3597503 9 0
4.3129845 -6.1778784 -0.060151983 5 1
4.3314734 -6.2849736 0.74867803 6 3
5.3894134 -8.6043148 0.81519204 4 5
7.7529044 -13.824893 0.73252726 5 9
6.0453033 -13.256959 0.72333491 14 8
4.7337036 -13.182893 0.67100012 9 7
3.6821182 -14.438936 0.5082255 9 6
7.7480822 -13.89154 1.092921 17 13
6.0727129 -13.246776 1.0561163 12 12
4.8095474 -13.45274 0.97646385 27 11
3.7144744 -14.534099 0.84726167 12 10
8.5965872 -15.779218 1.4050612 3 17
6.0404983 -13.243123 1.3762549 12 16
5.0077925 -14.457229 1.2755489 3 15
3.6559768 -14.5235 1.1889844 21 14
2.9995594 -10.070116 -0.13873583 11 2
3.6197538 -13.957751 0.11639026 13 4
5.1231418 -24.272408 2.6970792 18 26
5.0415835 -23.895588 3.6658883 31 28
4.8350611 -23.137955 5.9536319 68 30
5.4247289 -8.7314568 4.2535439 13 31
6.0376816 -13.295608 1.7002741 22 20
5.3032503 -15.667541 1.6132609 4 19
3.9734473 -16.758984 1.511477 5 18
8.9592628 -16.67948 2.2285047 24 25
6.0759745 -13.415751 2.0332909 35 24
3.9588912 -16.659992 1.8937705 13 22
3.3413661 -4.0659223 -0.35763964 9 0
4.3397641 -6.3626351 0.73835641 5 3
5.3471584 -8.5905409 0.81800485 5 5
7.6903348 -13.814723 0.73476136 5 9
5.9878111 -13.239636 0.72577637 16 8
4.6830006 -13.174678 0.67251706 9 7
3.6345956 -14.466153 0.50659341 9 6
7.6771994 -13.863028 1.0951186 17 13
6.0216131 -13.248439 1.0568072 12 12
4.7731166 -13.507858 0.97410834 28 11
3.6637301 -14.541705 0.84726149 12 10
8.4418125 -15.580081 1.4092522 4 17
5.9878373 -13.239918 1.3767191 13 16
4.9862523 -14.5909 1.2719707 2 15
3.6130953 -14.585311 1.1870645 17 14
2.963701 -10.070386 -0.13784377 9 2
3.571022 -13.965031 0.11639009 12 4
5.0326586 -24.245319 2.6954529 29 26
4.9574437 -23.902838 3.6654818 32 28
5.4451737 -8.976882 2.9005818 44 29
4.7549558 -23.154295 5.9545283 34 30
5.3942294 -8.7450686 4.2535439 13 31
5.9832659 -13.287638 1.700274 22 20
5.2056522 -15.500729 1.6142623 2 19
8.8969488 -16.696245 2.2282147 23 25
6.0243335 -13.417398 2.0329375 35 24
3.9552634 -17.049532 1.8982034 6 22
3.3271642 -4.0722904 -0.3576397 10 0
4.7332044 -7.235465 -0.35693267 27 1
4.3215394 -6.3815355 0.73698002 5 3
5.3110991 -8.590229 0.81941116 6 5
7.6238632 -13.795164 0.73763388 7 9
5.9352412 -13.236266 0.7271713 15 8
4.6335459 -13.171121 0.67365468 9 7
3.5876129 -14.498148 0.50455344 8 6
7.6045756 -13.829619 1.0975162 15 13
5.967371 -13.240439 1.0579585 13 12
4.7271032 -13.524025 0.9738465 29 11
3.6343284 -14.697351 0.83854765 9 10
8.3409786 -15.498981 1.4112191 5 17
5.9352522 -13.236506 1.3771831 14 16
3.564255 -14.607408 1.1865408 18 14
2.9285424 -10.075398 -0.13784389 9 2
3.5229695 -13.977058 0.11583082 10 4
4.9522085 -24.287149 2.6966722 22 26
4.8760653 -23.929533 3.6667001 27 28
5.4177747 -8.9996653 2.9018021 6 29
4.6800966 -23.209345 5.9625964 13 30
5.3442025 -8.7143803 4.240603 44 31
5.9242229 -13.26522 1.700274 31 20
4.9459372 -14.637343 1.6191351 3 19
8.8386259 -16.721928 2.2282145 23 25
5.9648476 -13.395131 2.0319951 35 24
4.950964 -24.619181 1.986117 5 22
3.3129396 -4.0786095 -0.35763979 9 0
4.7216249 -7.2776446 -0.36577299 15 1
4.3290186 -6.4593711 0.7266584 5 3
5.2710853 -8.580657 0.82175511 8 5
7.5535908 -13.766171 0.74114484 8 9
5.884316 -13.237426 0.72821754 16 8
4.5830202 -13.162522 0.67517155 9 7
3.5369949 -14.505313 0.50455326 8 6
7.5362597 -13.80503 1.099514 15 13
5.9148173 -13.236962 1.0588796 13 12
4.6787386 -13.530311 0.97410798 33 11
3.5837097 -14.709619 0.83825707 9 10
8.25881 -15.458599 1.4124163 7 17
5.8827477 -13.232888 1.3776473 18 16
5.2034812 -15.997884 1.2313246 8 15
3.517992 -14.649147 1.1853189 21 14
2.8926985 -10.075416 -0.1369517 13 2
3.4741707 -13.984 0.11583066 9 4
4.8701401 -24.318811 2.697485 14 26
4.7979255 -23.980635 3.6699493 11 28
5.270503 -8.7443447 2.8658004 3 29
4.6068325 -23.278784 5.9733553 6 30
5.8732038 -13.266299 1.7002739 33 20
4.8869491 -14.615148 1.6193244 4 19
8.7682629 -16.719902 2.2273452 19 25
5.9118171 -13.391606 2.0315237 35 24
4.8575945 -24.576548 1.9854834 10 22
3.3005176 -4.0890274 -0.35975057 8 0
4.6962042 -7.2888112 -0.36577311 13 1
4.3320498 -6.5282483 0.71771294 5 3
5.233171 -8.5754738 0.82363027 9 5
7.4636788 -13.691107 0.74784768 7 9
5.8349867 -13.243132 0.72891504 16 8
4.5325942 -13.153733 0.67668837 9 7
3.4897056 -14.536989 0.50251323 8 6
7.456284 -13.752622 1.1027106 17 13
5.8639021 -13.238026 1.0595704 14 12
4.6326137 -13.546156 0.97384614 33 11
3.5276086 -14.682151 0.84029013 12 10
8.1809816 -15.427008 1.4134425 8 17
5.8303218 -13.229066 1.3781114 17 16
5.080101 -15.713374 1.2400546 5 15
3.4714642 -14.69074 1.1840972 21 14
2.8568735 -10.075304 -0.13605939 15 2
3.425348 -13.990771 0.1158305 10 4
4.7905583 -24.370005 2.6991107 9 26
4.720787 -24.041365 3.674011 7 28
5.8206863 -13.262431 1.7002738 34 20
4.858077 -14.724358 1.6187829 4 19
4.7849665 -24.687298 1.4224714 18 18
8.7118311 -16.749729 2.2274899 17 25
5.8604121 -13.392629 2.0311701 36 24
4.7901702 -24.726862 1.9870952 6 22
3.2862353 -4.0952535 -0.35975066 8 0
4.6726689 -7.3043275 -0.36703613 13 1
4.3151059 -6.5517125 0.71564859 5 3
5.1953392 -8.5701313 0.82550544 10 5
7.4178281 -13.716388 0.74752831 7 9
5.7841358 -13.24391 0.72996116 16 8
4.483366 -13.149615 0.67782611 9 7
7.4082432 -13.773295 1.1027104 17 13
5.8145795 -13.243643 1.0600308 14 12
3.4908795 -14.797953 0.83389992 4 10
8.1152725 -15.422631 1.4139555 12 17
5.7795105 -13.229796 1.3784593 18 16
4.9304175 -15.301381 1.2525058 4 15
2.8216968 -10.079945 -0.13605951 15 2
3.3765004 -13.997373 0.11583034 10 4
4.7113047 -24.42589 2.7009397 6 26
4.6458268 -24.121614 3.6796973 5 28
4.4614263 -23.436491 5.9984589 3 30
5.0530953 -8.2878971 4.1047244 44 31
8.0468502 -15.388894 1.8050723 6 21
5.7758965 -13.282158 1.7002735 33 20
4.8383021 -14.877459 1.6179975 4 19
4.6987748 -24.69858 1.4224712 17 18
8.6533232 -16.774765 2.2274895 17 25
5.8105822 -13.398215 2.0309343 36 24
4.6961703 -24.678658 1.9864041 4 22
3.2719309 -4.101429 -0.35975072 10 0
4.6452446 -7.3108783 -0.36577335 12 1
4.334836 -6.6617379 0.70051014 5 3
5.1595421 -8.5692062 0.82691175 10 5
7.3561978 -13.704805 0.74976242 12 9
5.7348504 -13.249245 0.73065859 18 8
4.4331203 -13.140449 0.67934299 8 7
7.3288922 -13.720222 1.105907 17 13
5.7652688 -13.249078 1.0604913 15 12
4.577106 -13.743066 0.96442461 22 11
8.0399084 -15.394975 1.4148961 14 17
5.7287483 -13.230332 1.3788074 27 16
4.9220424 -15.51825 1.2464945 3 15
4.0981951 -20.489731 0.98043269 5 14
2.7858903 -10.079581 -0.13516732 15 2
3.3276315 -14.003802 0.11583018 10 4
4.6361203 -24.516211 2.7041914 5 26
5.0585146 -8.385313 4.1293116 38 31
7.9807072 -15.389707 1.8049151 5 21
5.7211394 -13.278641 1.7002734 33 20
4.9136124 -15.480448 1.6147215 2 19
4.6082277 -24.7101 1.4224708 17 18
5.7591071 -13.41463 2.0309341 37 24
4.6311564 -24.89357 1.9887643 3 22
3.2593853 -4.1117225 -0.36186129 10 0
4.6197081 -7.3217778 -0.36577347 10 1
4.3365412 -6.7308989 0.69156468 5 3
5.1257353 -8.5727234 0.82784927 9 5
7.2942734 -13.698565 0.75167733 14 9
5.6855783 -13.254398 0.73135602 26 8
4.3851056 -13.140831 0.68010128 8 7
7.2688904 -13.718428 1.1069058 17 13
5.7136612 -13.255065 1.0609517 16 12
4.5256472 -13.749338 0.96468616 21 11
4.0469828 -20.056185 0.52630836 6 10
7.9815044 -15.414197 1.4149814 15 17
5.6764169 -13.241666 1.3789233 29 16
4.9499187 -15.936737 1.2346154 14 15
2.7477765 -10.08929 -0.13605975 13 2
3.2738492 -14.010679 0.11583 10 4
4.4961605 -24.36655 3.6979754 3 28
5.0333652 -8.411622 4.1331935 43 31
7.9242597 -15.41332 1.8049148 4 21
5.6664653 -13.274901 1.7002733 34 20
4.98349 -16.079292 1.6114726 31 19
4.5140257 -24.691511 1.4228058 17 18
5.7137499 -13.434151 2.0310516 37 24
4.9576612 -15.959814 1.9845583 39 23
4.5646129 -25.108334 1.9911244 2 22
3.2435865 -4.1184096 -0.36186135 10 0
4.5896964 -7.3292069 -0.36451092 10 1
4.3430381 -6.8194265 0.67986673 6 3
5.0889544 -8.5773582 0.82878667 9 5
5.6346579 -13.270333 0.73135579 25 8
4.3293977 -13.127401 0.68199754 8 7
3.5118523 -16.463514 0.34585035 6 6
5.6620665 -13.260851 1.0614122 16 12
4.4678764 -13.726131 0.96651787 25 11
3.9758863 -20.085169 0.52514625 7 10
5.6286879 -13.251356 1.379039 25 16
4.8870115 -15.914422 1.2356172 12 15
2.7131326 -10.098434 -0.13695228 13 2
3.2249327 -14.016752 0.11582985 10 4
4.5169725 -25.044424 2.7249227 2 26
5.2503819 -9.1646919 2.270457 37 27
4.8545556 -8.1762104 2.7815924 4 29
5.3497143 -33.42168 7.8247604 4 30
4.968771 -8.3391314 4.1086059 50 31
5.2890134 -9.1772289 1.7624006 29 21
5.6274953 -13.313212 1.7002729 28 20
4.9211144 -16.061975 1.6116349 21 19
4.4319191 -24.736603 1.4224144 14 18
5.6668329 -13.448743 2.0310516 36 24
4.8946662 -15.937521 1.9839474 37 23
3.2309513 -4.1286178 -0.3639724 8 0
4.564095 -7.3399129 -0.36451104 10 1
4.3607459 -6.9300027 0.66472846 8 3
5.0532827 -8.5760002 0.83019304 8 5
5.2900257 -9.1390095 1.0702337 11 9
5.5868468 -13.279882 0.73170447 21 8
4.2763548 -13.103016 0.68465221 8 7
3.4537892 -16.46545 0.34625825 6 6
5.2698803 -9.1443624 1.3065102 11 13
5.6142778 -13.270492 1.0616423 16 12
4.4199457 -13.736373 0.96651769 31 11
3.9081199 -20.11348 0.52398425 9 10
5.2627754 -9.1272039 1.5321636 25 17
5.582408 -13.265655 1.3790389 19 16
4.8314424 -15.926114 1.2356169 13 15
3.893471 -20.665466 0.97519642 11 14
2.6784387 -10.10746 -0.1378447 13 2
3.1754129 -14.017718 0.11638881 10 4
5.222115 -9.1869478 2.2710342 34 27
4.7402396 -27.981012 3.9928701 14 28
4.8745089 -8.3073969 2.7974575 14 29
5.2208085 -9.0345068 4.3066001 17 31
5.2418337 -9.1533337 1.7621492 33 21
5.5809989 -13.327504 1.7002728 29 20
4.8660493 -16.07868 1.6116076 16 19
4.3455577 -24.746653 1.4224142 14 18
5.2577286 -9.1695747 1.9862099 25 25
5.6198649 -13.463172 2.0310514 35 24
4.8369713 -15.939451 1.9837728 35 23
5.3476839 -33.508854 2.0882487 3 22
3.2165313 -4.1346002 -0.36397246 8 0
4.5384574 -7.3505292 -0.36451116 10 1
5.2218118 -9.1086874 0.33925509 30 3
5.0195508 -8.5791044 0.83113056 8 5
5.2353778 -9.0967512 1.074064 17 9
5.5404692 -13.294033 0.73170424 17 8
4.2316132 -13.117474 0.68427271 4 7
3.3974359 -16.482038 0.34544203 6 6
5.2266212 -9.1296749 1.3077089 17 13
5.5679312 -13.284739 1.0616421 16 12
4.3750334 -13.761113 0.9657324 30 11
3.8373268 -20.11677 0.52427441 11 10
5.2252316 -9.1263599 1.5324202 24 17
5.5360799 -13.279789 1.3790387 19 16
4.7748275 -15.932714 1.2357597 14 15
3.825201 -20.708424 0.97397459 9 14
2.6436977 -10.116367 -0.13873699 11 2
3.1264744 -14.023447 0.11638865 10 4
5.3022804 -33.578743 3.0735004 4 26
5.1993089 -9.2230167 2.2724774 10 27
4.6447649 -28.011929 3.9944944 3 28
4.782599 -8.1625214 2.7767107 16 29
5.9655857 -41.336372 9.2709188 6 30
5.3295517 -9.3918066 4.4062438 18 31
5.2098622 -9.1663046 1.7621491 28 21
5.5359001 -13.34642 1.7002726 29 20
4.809906 -16.090296 1.6116073 16 19
5.2200661 -9.1687059 1.9857752 34 25
5.5714021 -13.472651 2.0309334 35 24
4.7813148 -15.950968 1.9837725 35 23
3.2020905 -4.1405325 -0.36397251 8 0
4.5127831 -7.3610559 -0.36451125 10 1
5.1862855 -9.1124058 0.34063101 31 3
4.9839706 -8.5774651 0.83253688 8 5
5.2111139 -9.1281929 1.072787 13 9
5.4926095 -13.303245 0.7320528 7 8
4.2654285 -13.517716 0.65393126 2 7
3.3387954 -16.478621 0.34625787 7 6
5.198473 -9.1518583 1.3073092 16 13
5.5229797 -13.303604 1.0614116 14 12
3.7620962 -20.080126 0.52688831 10 10
5.1989689 -9.1531811 1.5321634 19 17
5.4925694 -13.303338 1.3788065 25 16
4.7191944 -15.944015 1.2357596 13 15
3.7507575 -20.696507 0.97467244 9 14
2.6089087 -10.125154 -0.13962941 11 2
3.0775142 -14.029004 0.11638849 9 4
5.5013638 -36.487141 3.1919963 2 26
5.1873374 -9.2868795 2.2756529 3 27
4.9264731 -31.530531 4.2820773 7 28
4.7577562 -8.1831188 2.777931 6 29
5.839612 -41.527802 9.303195 4 30
5.2244878 -9.2259207 4.3544807 3 31
5.1778445 -9.1791649 1.762149 28 21
5.4907184 -13.365185 1.7002723 29 20
4.7537212 -16.101719 1.6116072 16 19
4.1994004 -25.014404 1.4196199 9 18
5.1936255 -9.1955166 1.9862096 17 25
5.5286317 -13.501118 2.0312865 38 24
4.7256165 -15.96229 1.9837723 38 23
5.960218 -41.424015 2.1796153 5 22
3.1876285 -4.1464143 -0.36397257 9 0
4.4870715 -7.3714933 -0.36451137 10 1
5.1691732 -9.1619673 0.33512601 16 3
4.9502988 -8.5803022 0.8334744 8 5
5.1959839 -9.182723 1.0699141 10 9
5.4404926 -13.297933 0.73344785 5 8
4.2387686 -13.629914 0.64596653 2 7
3.281266 -16.484905 0.34625769 7 6
5.1665058 -9.1646786 1.3073089 4 13
5.4779463 -13.322318 1.0611811 14 12
4.3565593 -14.167518 0.94505769 15 11
3.6925306 -20.092829 0.52659768 9 10
5.448946 -13.326746 1.378574 21 16
4.6615834 -15.945313 1.2360456 11 15
2.5735598 -10.128929 -0.13962953 11 2
3.0285368 -14.03439 0.11638834 9 4
5.3886805 -36.639957 3.1976869 12 26
4.8127627 -31.507568 4.2792339 4 28
5.168983 -9.1805201 4.3376575 4 31
5.4454532 -13.383796 1.7002722 31 20
4.6994381 -16.122753 1.6115528 20 19
5.4871206 -13.534245 2.0317574 36 24
4.6640625 -15.943992 1.9832487 36 23
5.8300428 -41.578541 2.181227 3 22
3.1731465 -4.152245 -0.36397266 9 0
4.4613242 -7.3818407 -0.36451149 10 1
4.9166503 -8.5830069 0.83441186 7 5
5.3856659 -13.282845 0.73554039 5 8
4.2507653 -13.942666 0.6224519 3 7
3.2232013 -16.486031 0.34666535 7 6
6.9117613 -13.669737 1.1140975 10 13
5.4342384 -13.345671 1.0607202 15 12
4.3090229 -14.187165 0.94453418 14 11
3.619781 -20.075504 0.52804965 12 10
5.4066081 -13.35481 1.3782257 15 16
4.60781 -15.966031 1.2357591 11 15
3.5419731 -20.075272 0.99701053 16 14
2.5386932 -10.137475 -0.14052193 13 2
2.9795392 -14.039607 0.11638818 10 4
5.2653346 -36.698006 3.1995161 7 26
7.1973581 -14.614617 3.623662 4 29
5.8913221 -45.077202 9.9478245 3 30
7.2988577 -14.776244 1.7997326 4 21
5.4001079 -13.402253 1.700272 29 20
4.6450477 -16.143604 1.6114985 18 19
7.3258228 -14.807175 2.1601439 3 25
5.4454288 -13.567249 2.0322285 35 24
4.6102962 -15.964722 1.983423 36 23
3.158644 -4.1580257 -0.36397272 8 0
4.4373231 -7.3965945 -0.3657743 10 1
6.0757051 -11.663307 -0.034386393 3 3
4.8830252 -8.5855818 0.83534944 7 5
6.8896084 -13.669622 0.76316684 14 9
5.3337531 -13.277122 0.7369355 5 8
4.2313466 -14.103906 0.61069453 6 7
3.1656444 -16.491911 0.34666517 7 6
6.8567266 -13.669903 1.1148964 21 13
5.3918114 -13.373677 1.0600291 13 12
4.2613816 -14.206655 0.94401056 14 11
3.5476794 -20.062881 0.52921122 12 10
7.2666779 -14.716894 1.4306326 4 17
5.36412 -13.38274 1.3778772 15 16
3.470916 -20.072294 0.99735934 16 14
2.5033016 -10.141005 -0.14052205 13 2
2.9305255 -14.044651 0.11638803 9 4
5.3059516 -38.421165 3.2694342 6 26
5.8954778 -44.876965 5.3722939 10 28
7.1605945 -14.671425 3.6285431 5 29
5.7289109 -45.038349 9.9379616 3 30
4.8936715 -8.6661129 4.1823678 41 31
7.2110586 -14.703141 1.7991045 4 21
5.3546801 -13.420558 1.7002717 28 20
4.590549 -16.164272 1.6114441 16 19
4.0181808 -25.877241 1.4102324 4 18
5.4035549 -13.600124 2.0326993 34 24
4.5582924 -15.995088 1.9837717 37 23
4.0147657 -25.842316 1.9988371 42 22
3.1441216 -4.1637554 -0.36397278 8 0
4.4097209 -7.4022651 -0.36451173 10 1
6.0188437 -11.63762 -0.028193617 3 3
4.8494225 -8.588028 0.8362869 7 5
6.8291717 -13.655776 0.76540101 14 9
5.2805648 -13.2664 0.73867929 4 8
4.195076 -14.181901 0.60538459 13 7
3.1080697 -16.497589 0.34666499 7 6
6.8053684 -13.679165 1.1152959 24 13
5.347858 -13.396749 1.0595683 13 12
4.2192311 -14.255416 0.94191676 28 11
3.4752085 -20.045033 0.53066331 11 10
7.2062411 -14.713593 1.4310601 4 17
5.322854 -13.415344 1.3774128 16 16
3.3961699 -20.029268 0.99910432 14 14
2.4683592 -10.149308 -0.14141446 13 2
2.8810134 -14.04458 0.11694699 8 4
5.178915 -38.508781 3.2724826 8 26
5.7383385 -44.887035 5.3718872 13 28
7.0881186 -14.635422 3.6212208 7 29
4.8634033 -8.6778717 4.1823678 41 31
7.1453586 -14.685613 1.7988529 5 21
5.328227 -13.506064 1.7002712 26 20
4.5350275 -16.179842 1.6114168 16 19
3.9375801 -25.990379 1.4090588 15 18
7.1935701 -14.772794 2.1578262 3 25
5.3601384 -13.628064 2.0330524 33 24
4.5070353 -16.030205 1.9842077 34 23
3.9240799 -25.845924 1.9987793 48 22
3.1295795 -4.1694345 -0.36397284 9 0
4.3838668 -7.4123421 -0.36451185 11 1
4.795928 -8.5741453 0.43008396 2 3
4.815845 -8.5903425 0.83722436 8 5
6.7796755 -13.669606 0.76571995 14 9
5.2288437 -13.260271 0.74007434 4 8
4.1501069 -14.215697 0.60348803 11 7
3.050473 -16.503069 0.34666482 7 6
6.7575893 -13.697566 1.1152956 24 13
5.3078713 -13.434094 1.0584165 13 12
4.1703711 -14.269694 0.94165492 28 11
7.1405263 -14.696045 1.4317441 6 17
5.2814054 -13.447824 1.3769484 15 16
4.1470337 -14.394903 1.2824156 30 15
3.326246 -20.035728 0.99910408 14 14
2.4329281 -10.152593 -0.14141457 14 2
2.8319812 -14.049279 0.11694684 8 4
5.0462995 -38.541256 3.2732954 16 26
7.4645891 -15.828911 2.6760426 5 27
5.5807266 -44.89159 5.3710742 4 28
7.0212235 -14.613019 3.6157286 3 29
4.8330927 -8.6895247 4.1823678 40 31
7.0709658 -14.644439 1.7984446 5 21
5.2850938 -13.533758 1.700271 25 20
4.4812355 -16.205059 1.6113354 17 19
3.8455055 -25.983757 1.4092262 8 18
7.1117101 -14.713151 2.155364 4 25
5.3179178 -13.660679 2.0335233 36 24
4.4537649 -16.055321 1.9844693 35 23
3.8329561 -25.844234 1.9986639 7 22
3.1150172 -4.1750631 -0.3639729 9 0
4.3579764 -7.4223294 -0.36451197 12 1
4.7431135 -8.5253801 0.43902916 3 3
4.7805166 -8.5878773 0.8386308 8 5
6.7337108 -13.692579 0.76540053 12 9
5.1772132 -13.253945 0.74146938 5 8
4.1013622 -14.229732 0.60310864 11 7
2.9928598 -16.508345 0.34666464 8 6
6.693789 -13.673764 1.1170937 16 13
5.2623 -13.452082 1.0581859 13 12
4.1214428 -14.283807 0.94139302 28 11
6.9827518 -14.435175 1.4368761 2 17
5.2411118 -13.484994 1.3763678 11 16
4.095005 -14.394181 1.2827017 33 15
2.3979101 -10.160653 -0.1423071 14 2
2.7829344 -14.053809 0.11694669 7 4
7.4127879 -15.858956 2.6766198 8 27
4.8826585 -9.0442886 2.8822734 8 29
4.7890444 -8.6649446 4.1720147 29 31
6.729353 -13.891602 1.7932637 12 21
5.2404847 -13.556495 1.7002708 27 20
4.4184651 -16.180882 1.6115247 32 19
7.0479736 -14.69988 2.15435 6 25
5.2741895 -13.688348 2.0338764 36 24
4.4012418 -16.08518 1.9848181 34 23
3.7427285 -25.852186 1.9986637 5 22
3.0988183 -4.1764064 -0.361862 10 0
4.3320527 -7.4322257 -0.36451209 42 1
4.7394786 -8.6061487 0.42870751 5 3
4.7470045 -8.5899277 0.83956826 8 5
6.6823549 -13.701395 0.76603872 4 9
5.1256723 -13.247417 0.74286443 5 8
4.0551805 -14.258323 0.60159147 10 7
2.9352286 -16.513422 0.34666446 8 6
6.5863066 -13.532757 1.1238868 4 13
5.207366 -13.436205 1.0595677 17 12
4.0733299 -14.302665 0.94086945 34 11
5.1966543 -13.507581 1.3761355 11 16
4.0447469 -14.403117 1.2827015 33 15
3.2112346 -20.346703 0.98863244 3 14
2.3628483 -10.168594 -0.1431995 14 2
2.7334414 -14.053217 0.11750565 7 4
7.3556695 -15.87478 2.6763308 10 27
4.8459077 -9.0420437 2.8804429 32 29
4.7910123 -8.7622528 4.1966019 19 31
6.555263 -13.572354 1.7910028 23 21
5.2141118 -13.646637 1.7002703 27 20
4.3749719 -16.264801 1.6111184 17 19
3.2168152 -20.588219 1.4699039 5 18
5.2381716 -13.744821 2.0349364 35 24
4.3485465 -16.114868 1.9851668 34 23
3.0842319 -4.1819272 -0.36186206 10 0
4.3060937 -7.4420319 -0.36451221 48 1
4.7042403 -8.6034441 0.43077165 6 3
4.7135191 -8.5918493 0.84050578 8 5
6.6257606 -13.695999 0.76763451 4 9
5.0742202 -13.240695 0.74425936 6 8
4.0088305 -14.286765 0.60007417 9 7
2.877578 -16.518297 0.34666428 8 6
6.5285969 -13.522295 1.1250855 4 13
5.1342626 -13.352628 1.0641739 28 12
4.025116 -14.321362 0.94034588 32 11
5.1624823 -13.568633 1.3749745 12 16
3.9995489 -14.441431 1.2818426 33 15
3.1445756 -20.407309 0.98671252 3 14
2.3273492 -10.17151 -0.14319962 15 2
2.6843815 -14.057402 0.11750551 7 4
4.7955804 -9.0023642 2.8737307 13 29
4.9873013 -9.384901 4.3713021 32 31
6.4715757 -13.491353 1.7903432 28 21
5.1832719 -13.722272 1.7002698 19 20
4.3224287 -16.299339 1.6109829 17 19
3.1299534 -20.404657 1.4720269 18 18
4.8939047 -9.1822624 1.9827327 3 25
5.2018051 -13.801209 2.0359962 33 24
4.2982254 -16.159164 1.9857773 36 23
3.0680389 -4.1831522 -0.35975164 9 0
4.2801013 -7.4517465 -0.36451232 46 1
4.6673489 -8.595952 0.43352389 7 3
4.6800575 -8.5936413 0.8414433 7 5
6.487884 -13.470427 0.7842325 4 9
5.0215802 -13.228951 0.74600327 7 8
3.9614697 -14.310143 0.5989362 9 7
2.8199127 -16.52297 0.3466641 8 6
6.4555097 -13.469394 1.1280823 6 13
5.0811706 -13.341076 1.0653254 30 12
3.9768043 -14.339896 0.93982232 33 11
2.8940663 -17.195415 0.69883573 4 10
6.4241982 -13.384325 1.4570618 11 17
5.1253648 -13.619949 1.3740457 11 16
3.9516184 -14.464818 1.2814131 35 15
3.0733337 -20.412891 0.98671228 3 14
2.2922158 -10.179207 -0.14409202 13 2
2.6357021 -14.066369 0.11694624 7 4
6.8212767 -14.741323 2.604162 10 27
5.2458754 -10.190364 4.5977659 17 31
6.386806 -13.405235 1.7896522 30 21
5.1519504 -13.797855 1.7002695 20 20
4.2788396 -16.387939 1.6105496 16 19
6.6142459 -13.991856 2.130743 22 25
5.1740179 -13.891342 2.0378804 28 24
4.2451348 -16.188517 1.9861261 35 23
3.0534296 -4.1885653 -0.3597517 9 0
4.2540751 -7.4613714 -0.36451241 44 1
4.630549 -8.5883055 0.43627626 7 3
4.6466241 -8.5953035 0.84238076 7 5
4.9703279 -13.221829 0.74739826 6 8
3.9139781 -14.333364 0.59779823 9 7
2.7622294 -16.527443 0.34666395 8 6
6.3794379 -13.406757 1.1314788 6 13
5.030756 -13.338972 1.0660162 27 12
3.9292228 -14.363192 0.93903702 39 11
2.8374698 -17.244936 0.69622147 5 10
6.3603649 -13.354416 1.4579169 10 17
5.0917306 -13.685679 1.3727688 10 16
3.904371 -14.492978 1.2808404 32 15
2.9933631 -20.298613 0.99090064 3 14
2.2570386 -10.186782 -0.14498456 11 2
2.5865951 -14.070213 0.11694609 8 4
6.7798524 -14.787981 2.6058936 5 27
6.7419586 -14.641562 3.6071849 3 29
5.2696481 -10.36676 4.6443524 12 31
6.321341 -13.370435 1.7893066 32 21
5.1075473 -13.825001 1.7002691 20 20
4.2216187 -16.397505 1.6105493 16 19
2.9824321 -20.345654 1.4728087 14 18
6.5042381 -13.840369 2.1255291 33 25
5.1343188 -13.937909 2.0387046 29 24
4.1967621 -16.24729 1.9869983 36 23
3.038801 -4.1939278 -0.35975176 9 0
4.2280145 -7.4709048 -0.36451253 40 1
4.597198 -8.5898285 0.4376522 8 3
4.6132169 -8.596838 0.84331834 8 5
6.3478575 -13.378176 0.79285032 8 9
4.9191694 -13.214509 0.7487933 6 8
3.8663521 -14.356428 0.59666026 9 7
2.7041752 -16.526741 0.34707186 8 6
6.3038621 -13.343755 1.1348753 7 13
4.9841752 -13.351181 1.0660161 26 12
3.8815067 -14.38633 0.93825179 37 11
2.7772684 -17.249464 0.69622129 4 10
6.3018746 -13.338337 1.4585155 10 17
5.0576835 -13.751338 1.3714918 9 16
3.8633299 -14.560456 1.2791228 25 15
2.9235356 -20.318624 0.99037677 5 14
2.2214766 -10.189328 -0.14498466 9 2
2.537477 -14.073885 0.11694594 8 4
6.7282028 -14.806286 2.6058934 5 27
3.2165039 -24.484474 3.6975653 2 28
6.7305484 -14.772019 3.6218293 5 29
5.0815549 -9.9571247 4.524003 2 31
6.2545013 -13.330631 1.7889297 35 21
5.0978007 -13.987609 1.7002684 19 20
4.1707511 -16.446356 1.6103325 20 19
2.9199591 -20.47537 1.4714117 11 18
6.4205794 -13.758883 2.1224875 31 25
5.0918541 -13.974686 2.0392935 29 24
4.1480145 -16.305922 1.9878705 34 23
3.0256972 -4.2035007 -0.36186233 9 0
4.2019219 -7.4803472 -0.36451265 40 1
4.562211 -8.5865564 0.43971649 8 3
4.5798383 -8.5982447 0.84425581 8 5
6.277576 -13.329215 0.79731894 11 9
4.8668747 -13.202161 0.7505371 6 8
3.8185964 -14.379334 0.59552228 9 7
2.6461413 -16.525839 0.34747964 8 6
6.2438593 -13.322752 1.1364735 7 13
4.9623842 -13.459986 1.0614094 17 12
3.832866 -14.40438 0.93772817 35 11
2.716011 -17.238846 0.69709247 6 10
6.2251253 -13.270202 1.4600549 9 17
5.0244536 -13.82177 1.3700987 8 16
3.81951 -14.613013 1.2778345 28 15
2.8519485 -20.313461 0.99072564 5 14
2.1862302 -10.196658 -0.14587684 9 2
2.488687 -14.082343 0.11638668 8 4
3.1831949 -25.280935 3.7621493 3 28
6.6986208 -14.846362 3.6291513 8 29
4.6117229 -8.7453699 4.1758962 23 31
6.1896605 -13.295239 1.7885841 31 21
5.0612168 -14.048521 1.700268 18 20
4.1336317 -16.583948 1.6096284 17 19
2.8488059 -20.485155 1.4713556 10 18
6.3475413 -13.705257 2.1203151 31 25
5.0675526 -14.084029 2.0416489 26 24
4.0996714 -16.369347 1.98883 33 23
3.0110164 -4.208766 -0.36186239 10 0
4.1757956 -7.4896984 -0.36451277 47 1
4.5289311 -8.5878162 0.44109252 8 3
4.5464873 -8.5995226 0.84519333 7 5
6.2210259 -13.317555 0.79923391 11 9
4.8159189 -13.194446 0.75193214 8 8
3.7707095 -14.402082 0.59438431 9 7
2.5881259 -16.524729 0.34788755 9 6
6.1807442 -13.292068 1.1384714 7 13
4.9153814 -13.471955 1.0614092 17 12
3.7849035 -14.427197 0.93694288 29 11
2.6571472 -17.262871 0.69593054 9 10
6.175457 -13.277148 1.4602258 9 17
4.9944201 -13.906683 1.3683574 7 16
3.7738268 -14.655563 1.2768326 28 15
2.7779264 -20.268148 0.99247062 6 14
2.1509399 -10.203868 -0.14676936 6 2
2.439527 -14.085674 0.11638654 8 4
4.6255445 -9.0477667 2.2514024 7 27
3.1082988 -25.500498 3.7796154 2 28
6.6191835 -14.784656 3.6187778 2 29
4.6340256 -8.9065046 4.2186003 13 31
6.1432238 -13.311494 1.7885839 26 21
5.0581055 -14.245193 1.7002671 8 20
4.0963449 -16.726419 1.6088972 15 19
2.7736056 -20.429823 1.4720259 14 18
6.2864823 -13.684317 2.1191561 32 25
4.0554957 -16.462278 1.9903128 32 23
2.9978313 -4.2182527 -0.36397344 8 0
4.1496372 -7.4989581 -0.36451289 48 1
4.49405 -8.5842724 0.44315669 8 3
4.5148082 -8.6053715 0.84566206 7 5
6.1563673 -13.282117 0.80274493 12 9
4.7650599 -13.186537 0.75332719 6 8
3.7219346 -14.419742 0.59362566 9 7
2.5304401 -16.528393 0.34788737 8 6
6.1244698 -13.27998 1.13967 8 13
4.8598809 -13.449835 1.0630212 28 12
3.735292 -14.439985 0.93668103 29 11
2.5975084 -17.276735 0.69534951 9 10
6.1175852 -13.260303 1.4608244 12 17
4.9794211 -14.05464 1.3651073 6 16
3.7271273 -14.693028 1.2759737 33 15
2.7065861 -20.262478 0.99281943 6 14
2.1156092 -10.210955 -0.14766178 5 2
2.3906639 -14.093794 0.11582728 8 4
3.1377959 -27.515751 3.943716 3 28
6.091845 -13.313405 1.7884896 20 21
5.0548582 -14.446867 1.7002661 4 20
4.0633216 -16.90344 1.6079766 12 19
2.6959057 -20.324303 1.4732549 17 18
6.2207289 -13.648945 2.117563 33 25
4.016675 -16.594645 1.9924936 30 23
2.9830999 -4.2234211 -0.3639735 8 0
4.1234469 -7.5081272 -0.36451298 49 1
4.4608436 -8.5852718 0.44453275 8 3
4.4814982 -8.6063986 0.84659958 8 5
6.0969114 -13.260536 0.80529827 12 9
4.7142944 -13.178433 0.75472224 6 8
3.6745422 -14.447098 0.59210837 9 7
2.4724514 -16.526882 0.34829503 8 6
6.0699625 -13.272386 1.1406689 10 13
4.8069592 -13.437193 1.0641727 26 12
3.693789 -14.506917 0.93354046 28 11
2.5380795 -17.295378 0.69447786 9 10
6.0533829 -13.224305 1.4617651 9 17
4.976428 -14.256086 1.3605802 5 16
3.6765561 -14.705624 1.2758304 34 15
2.6353006 -20.256552 0.99316829 7 14
2.0802364 -10.217919 -0.14855418 4 2
2.3414626 -14.096782 0.11582714 8 4
4.6175909 -9.2068825 2.8902049 34 29
4.4838791 -8.6723204 4.146132 37 31
6.0421205 -13.319854 1.7884265 21 21
5.0067611 -14.468871 1.7002659 4 20
4.0400276 -17.154627 1.6066498 2 19
2.6205957 -20.248442 1.4741486 18 18
6.160131 -13.62747 2.1164041 31 25
3.9864359 -16.791235 1.9958086 18 23
2.9683499 -4.2285376 -0.36397356 10 0
4.0972242 -7.5172048 -0.3645131 49 1
4.4276667 -8.5861435 0.44590893 7 3
4.4498281 -8.612009 0.84706825 9 5
6.0441318 -13.257585 0.80657482 12 9
4.6636276 -13.170136 0.75611722 6 8
3.6269839 -14.474299 0.59059107 9 7
2.4147587 -16.53014 0.34829485 7 6
6.0123444 -13.255113 1.1420673 10 13
4.7612109 -13.453475 1.0639422 25 12
3.648942 -14.553973 0.93144667 28 11
2.4785357 -17.31381 0.69360632 13 10
6.0023651 -13.225884 1.4620215 9 17
4.9813914 -14.496571 1.3551246 3 16
3.6337395 -14.772462 1.2741127 31 15
2.564327 -20.255365 0.99334264 7 14
2.0448213 -10.224761 -0.14944659 4 2
2.2922533 -14.099598 0.11582699 8 4
4.5807157 -9.2035542 2.8883741 35 29
4.4178586 -8.5774708 4.1163678 31 31
5.9940047 -13.330854 1.7883949 16 21
4.9689755 -14.534494 1.7002654 4 20
2.547868 -20.212248 1.4745954 21 18
6.0869451 -13.567859 2.1140866 36 25
3.9598386 -17.022449 1.9997343 10 23
2.9535828 -4.2336025 -0.36397362 10 0
4.070971 -7.5261898 -0.36451322 53 1
4.3945189 -8.5868893 0.447285 6 3
4.4165616 -8.6127892 0.84800571 9 5
5.9898262 -13.249701 0.80817062 13 9
4.6119118 -13.156792 0.75786108 7 8
3.5792637 -14.501344 0.58907384 9 7
2.3570549 -16.533199 0.34829471 7 6
5.9564967 -13.242335 1.143266 10 13
4.7211733 -13.493895 1.0625601 32 12
3.60167 -14.586063 0.93013805 26 11
2.4188757 -17.332041 0.69273484 11 10
5.9498 -13.222532 1.4623634 11 17
4.9502826 -14.591306 1.3531512 3 16
3.5856307 -14.804535 1.273397 33 15
2.4933782 -20.253933 0.99351692 7 14
2.009604 -10.236393 -0.15123142 5 2
2.2430325 -14.102243 0.11582685 9 4
4.5330024 -9.1670971 2.882272 45 29
4.3879008 -8.5875692 4.1163678 31 31
5.9490261 -13.351169 1.7884262 16 21
4.9250703 -14.575688 1.7002652 3 20
2.4751718 -20.170803 1.4750981 15 18
6.0300598 -13.555309 2.1132176 37 25
4.9497099 -24.511515 2.1315541 7 23
2.9387975 -4.2386165 -0.36397368 10 0
4.0446849 -7.5350838 -0.36451334 54 1
4.3629661 -8.592206 0.44797307 6 3
4.3833256 -8.6134396 0.84894323 9 5
5.9292979 -13.22267 0.8110432 14 9
4.5614543 -13.148107 0.75925612 7 8
3.5327537 -14.538107 0.58679819 8 7
2.2993388 -16.536055 0.34829453 8 6
5.8976402 -13.219849 1.1448642 15 13
4.6751938 -13.509886 1.0623295 32 12
3.5507431 -14.593276 0.93013787 26 11
2.359098 -17.350063 0.6918633 10 10
5.8988886 -13.223717 1.4626198 14 17
4.9434304 -14.79312 1.3486241 3 16
3.5555789 -14.970154 1.2688169 20 15
2.4224494 -20.252251 0.99369127 10 14
1.9740905 -10.24299 -0.15212382 5 2
2.1938045 -14.104717 0.11582671 9 4
4.5163922 -9.2247686 2.8883739 8 29
4.3624744 -8.6113138 4.1202497 36 31
5.8664498 -13.257348 1.7877038 17 21
4.8910365 -14.6606 1.7002646 3 20
4.8923845 -24.729845 1.5653883 15 19
2.4047596 -20.174049 1.4750979 15 18
5.9811516 -13.566258 2.1130726 38 25
4.8654819 -24.533279 2.1317284 10 23
2.9239953 -4.2435789 -0.36397374 9 0
4.0198994 -7.5484748 -0.36577612 54 1
4.3283162 -8.5880003 0.45003712 5 3
4.3501191 -8.6139631 0.84988081 9 5
5.8815508 -13.233278 0.81136221 13 9
4.5099859 -13.134366 0.76099998 8 8
3.4826639 -14.55002 0.58641869 8 7
2.2416151 -16.53871 0.34829438 7 6
5.848352 -13.225591 1.1452637 14 13
4.625771 -13.51112 1.06279 28 12
3.5038357 -14.629997 0.92856747 33 11
2.2989829 -17.362896 0.69128221 10 10
5.8495846 -13.229458 1.4627907 13 17
5.0788937 -15.623676 1.3291237 5 16
3.5138528 -15.056473 1.2665268 3 15
2.351547 -20.250319 0.99386555 10 14
1.9385382 -10.249464 -0.15301634 4 2
2.1445684 -14.107018 0.11582657 11 4
6.5344458 -15.635225 2.6477492 5 27
4.4856987 -9.2399302 2.888984 8 29
4.3429399 -8.6533422 4.1293087 34 31
5.8216953 -13.277229 1.787735 17 21
4.8509164 -14.721071 1.7002642 3 20
4.8106637 -24.776194 1.5651985 15 19
2.3339281 -20.167059 1.4752095 15 18
5.9306703 -13.572281 2.1127827 37 25
4.8462873 -14.712711 2.0548387 2 24
4.787746 -24.604309 2.1327751 6 23
2.3817511 -21.345938 1.9458672 23 22
2.9091759 -4.2484889 -0.3639738 9 0
3.9950509 -7.5617857 -0.36703914 47 1
4.2998543 -8.6024952 0.4493489 5 3
4.3169451 -8.6143608 0.85081834 8 5
5.832231 -13.238974 0.81200039 13 9
4.4597435 -13.125293 0.76239502 8 8
3.4351256 -14.581532 0.58452219 8 7
2.1838801 -16.541162 0.3482942 7 6
5.7959919 -13.221647 1.1460626 12 13
3.4560404 -14.661616 0.92725879 7 11
2.2389939 -17.380507 0.69041067 10 10
5.7987504 -13.230261 1.4630471 13 17
4.9596252 -15.348305 1.3359718 6 16
2.2804804 -20.243147 0.99421442 10 14
1.9029465 -10.255813 -0.15390852 4 2
2.0953224 -14.109147 0.11582643 11 4
6.448082 -15.552772 2.6416869 6 27
3.0406075 -44.919239 9.8850565 3 30
4.3231454 -8.6953373 4.1383672 38 31
5.7768531 -13.296959 1.7877662 26 21
4.83113 -14.874155 1.7002635 3 20
4.7254434 -24.797482 1.5651441 15 19
2.263159 -20.159821 1.4753209 13 18
5.8786702 -13.573358 2.1123481 36 25
4.8210516 -14.841352 2.0576651 2 24
4.7230449 -24.779205 2.1356537 5 23
2.2944474 -21.004112 1.9418945 12 22
2.8943388 -4.2533474 -0.36397386 10 0
3.9686415 -7.5704141 -0.36703926 47 1
4.2637539 -8.5933208 0.45210126 4 3
4.283802 -8.6146336 0.8517558 8 5
5.7829266 -13.244484 0.81263858 14 9
4.405293 -13.096549 0.76518524 7 8
3.3842154 -14.588163 0.58452201 5 7
2.1261394 -16.543415 0.34829405 7 6
5.7498145 -13.236527 1.1460625 12 13
4.5651379 -13.683652 1.0556496 23 12
2.1788938 -17.397911 0.68953913 10 10
5.7494888 -13.23563 1.463218 15 17
4.9157491 -15.40418 1.334927 5 16
4.150898 -20.966129 1.096356 11 15
2.2096429 -20.240719 0.9943887 10 14
1.8673143 -10.26204 -0.15480104 7 2
2.0462582 -14.11607 0.11526729 10 4
2.979491 -41.214867 3.3765409 4 26
6.3937654 -15.569914 2.6416867 6 27
2.9063492 -40.551674 5.0042768 13 28
4.3510461 -9.0380125 2.8603046 20 29
2.8808038 -44.825974 9.8671246 2 30
4.2883129 -8.6963911 4.1357784 33 31
5.7099442 -13.255321 1.7873893 32 21
4.6464019 -24.903355 1.5646294 17 19
2.1889329 -20.152452 1.4754325 14 18
5.8228312 -13.57023 2.1117685 36 25
4.6378574 -24.870726 2.1370492 3 23
2.8794854 -4.2581539 -0.36397395 10 0
3.9436848 -7.5835567 -0.36830229 42 1
4.238236 -8.6170435 0.45003673 3 3
4.2522044 -8.6195202 0.85222453 8 5
5.7313232 -13.250548 0.81327677 17 9
4.3595624 -13.106576 0.76518506 7 8
3.6562381 -17.182005 0.38616532 5 7
2.0655026 -16.545563 0.34829387 8 6
5.6997652 -13.247216 1.146262 16 13
4.5149646 -13.694758 1.0556495 23 12
4.0783057 -20.476742 0.62080568 17 11
2.1156409 -17.415209 0.68866754 11 10
5.6979322 -13.241548 1.4633888 16 17
4.0776381 -21.03565 1.0946383 12 15
2.1353014 -20.238153 0.99456304 9 14
1.82806 -10.268254 -0.15569346 6 2
1.9920542 -14.118025 0.11526714 9 4
2.1901307 -21.301687 2.5657701 7 26
6.363493 -15.683911 2.64746 11 27
2.7563398 -40.511696 5.0006208 16 28
4.3163238 -9.0488558 2.8603046 20 29
4.2491431 -8.6834917 4.1293082 31 31
5.6972084 -13.385136 1.7881426 17 21
4.5551076 -24.914682 1.5646291 17 19
2.114768 -20.144812 1.4755441 16 18
5.7670736 -13.566874 2.1111891 36 25
4.971293 -16.067272 2.0866382 37 24
2.1293061 -20.634491 1.9375763 15 22
2.8631272 -4.263381 -0.363974 8 0
3.916014 -7.5974565 -0.36956534 41 1
5.2409358 -11.935793 -0.031637583 12 3
4.2161016 -8.6204891 0.85316199 7 5
5.6782336 -13.251655 0.81423414 16 9
4.3029675 -13.088155 0.76727772 8 8
3.592644 -17.209919 0.38464797 18 7
2.0048587 -16.547487 0.34829369 8 6
5.651186 -13.262484 1.1462618 15 13
4.4615927 -13.691032 1.0563403 24 12
3.9911823 -20.386885 0.62603956 16 11
2.0522702 -17.432281 0.687796 9 10
5.6478815 -13.252037 1.4634742 17 17
4.9071398 -15.917573 1.3233192 15 16
4.0071363 -21.0693 1.0939225 14 15
2.0608535 -20.230318 0.99491191 9 14
1.7923502 -10.27422 -0.15658586 6 2
1.9429232 -14.124588 0.11470789 9 4
6.2561359 -15.528925 2.6370676 4 27
2.6149242 -40.5158 5.0006204 14 28
4.2803526 -9.044364 2.8584738 29 29
4.224577 -8.7114401 4.1344843 18 31
5.6489849 -13.394894 1.788111 17 21
4.4681239 -24.925159 1.5646288 10 19
2.0441861 -20.136803 1.4756557 18 18
5.7256179 -13.600745 2.1117682 34 25
4.9079332 -16.045027 2.0858138 36 24
2.0486124 -20.306662 1.9337764 17 22
2.8482389 -4.2680788 -0.36397406 8 0
3.8894815 -7.6058092 -0.36956546 41 1
5.2007151 -11.953475 -0.032325853 13 3
4.1845188 -8.6251287 0.85363072 7 5
5.6289873 -13.256596 0.81487232 15 9
4.2562404 -13.092943 0.76762635 8 8
3.5313978 -17.20718 0.38540635 16 7
1.9469647 -16.544134 0.34870151 9 6
5.6048684 -13.276858 1.1462617 14 13
4.4054961 -13.662165 1.0581827 29 12
3.9141512 -20.345837 0.62865627 16 11
1.9919626 -17.454027 0.68663406 9 10
5.6001253 -13.261624 1.4635595 14 17
4.8515568 -15.929336 1.323319 16 16
3.9267325 -21.018307 1.0956397 15 15
1.9898844 -20.217133 0.9954353 10 14
1.7566025 -10.280062 -0.15747838 7 2
1.8936173 -14.126014 0.11470775 8 4
6.1917934 -15.511951 2.6350467 4 27
2.4734895 -40.519409 5.0006199 14 28
4.2430081 -9.0349827 2.8560328 4 29
4.1941528 -8.7208633 4.1344843 18 31
5.5875893 -13.361444 1.7877969 26 21
4.8566861 -16.06554 1.7002579 15 20
4.3936768 -25.044613 1.5640329 3 19
1.9736675 -20.128548 1.4757671 16 18
5.6781197 -13.615378 2.111768 33 25
4.8508883 -16.051895 2.0856957 32 24
5.3723044 -33.548725 2.288933 3 23
1.9788669 -20.358402 1.9343519 14 22
2.8346808 -4.2770529 -0.36608484 7 0
3.8629191 -7.6140695 -0.36956555 42 1
5.1546297 -11.952077 -0.030261619 13 3
4.1529355 -8.6296539 0.85409945 6 5
5.5826907 -13.270893 0.81487215 15 9
4.2145534 -13.12199 0.766231 4 8
3.4718857 -17.219086 0.38502681 16 7
1.889215 -16.545559 0.34870133 8 6
5.5584993 -13.291072 1.1462615 14 13
4.3608489 -13.686857 1.0574915 31 12
3.8340244 -20.274733 0.63284332 20 11
1.9313933 -17.470573 0.68576252 10 10
5.5552683 -13.280603 1.4634738 14 17
4.7939157 -15.931112 1.3235509 17 16
3.852797 -21.021645 1.0957826 12 15
1.9188114 -20.193705 0.99630761 11 14
1.7208163 -10.285779 -0.15837078 10 2
1.8444242 -14.132235 0.11414851 8 4
1.9529468 -20.643345 2.5387371 13 26
6.1204934 -15.470798 2.6315823 7 27
2.331948 -40.517544 5.0002136 13 28
4.2171488 -9.0634842 2.8584735 3 29
4.1510291 -8.6885996 4.1228371 20 31
5.5380378 -13.366024 1.7877338 34 21
4.7945681 -16.047737 1.7002578 16 20
4.2923832 -24.9303 1.5647095 3 19
1.9034032 -20.130045 1.475767 15 18
5.6305699 -13.629844 2.1117678 33 25
4.794837 -16.063461 2.0856955 30 24
1.9069326 -20.314926 1.9338336 12 22
2.8210766 -4.2859836 -0.36819565 7 0
3.8363287 -7.6222363 -0.36956567 41 1
5.1085973 -11.950501 -0.028197505 13 3
4.1199102 -8.6293001 0.85503697 6 5
5.5392408 -13.294579 0.81423354 16 9
4.2251949 -13.409993 0.7463491 3 8
3.4117706 -17.22583 0.38502663 16 7
1.8313653 -16.541798 0.34910926 7 6
5.5106416 -13.30034 1.1464611 14 13
3.756079 -20.218206 0.63624525 20 11
1.8707142 -17.48691 0.68489099 10 10
5.5103302 -13.29943 1.4633881 16 17
4.7353086 -15.927781 1.3238989 14 16
1.8479931 -20.175026 0.99700558 12 14
1.6849943 -10.291372 -0.15926319 10 2
1.7950922 -14.133316 0.11414836 8 4
1.8805344 -20.624784 2.5379238 12 26
6.0551801 -15.448494 2.6292727 5 27
2.1904259 -40.515179 4.9998069 11 28
11.06344 -32.345028 5.8423219 16 29
4.113728 -8.6746426 4.1163669 20 31
5.4870758 -13.365628 1.7876395 34 21
4.7345891 -16.039499 1.7002577 16 20
1.832584 -20.096302 1.4761579 16 18
5.5815372 -13.639357 2.1116228 34 25
4.7387476 -16.074829 2.0856953 30 24
5.8445096 -40.115822 2.4037399 6 23
1.835784 -20.301191 1.9336606 11 22
2.8074257 -4.2948713 -0.37030622 6 0
3.8097093 -7.6303105 -0.36956578 40 1
5.0668626 -11.962991 -0.028197674 13 3
4.0869198 -8.6288204 0.85597444 5 5
5.4942446 -13.313341 0.81391424 14 9
3.3516326 -17.232365 0.38502643 16 7
1.7736223 -16.54282 0.34910911 7 6
5.4656157 -13.319013 1.1462611 15 13
3.6817558 -20.191174 0.63807696 21 11
1.8100079 -17.508028 0.68372893 10 10
5.4653082 -13.318105 1.4633024 15 17
4.6806688 -15.943846 1.3237827 11 16
3.6079884 -20.097975 1.1228321 13 15
1.7773075 -20.156094 0.99770343 10 14
1.6491346 -10.29684 -0.16015559 10 2
1.7457585 -14.134226 0.11414823 9 4
1.8085384 -20.625954 2.5379236 9 26
6.0012279 -15.464266 2.6292725 5 27
4.0779333 -8.6651592 4.1111903 36 31
5.4403977 -13.37943 1.7876393 34 21
4.688272 -16.099709 1.7002573 13 20
5.4915128 -38.092377 1.4931511 9 19
1.7620642 -20.06731 1.476493 23 18
5.5324898 -13.648693 2.1114776 34 25
4.6835876 -16.090908 2.0858128 31 24
1.7642415 -20.247213 1.9330271 17 22
2.792428 -4.2993746 -0.37030628 6 0
3.7830627 -7.6382918 -0.36956587 41 1
5.0236859 -11.970582 -0.027509628 14 3
4.0539632 -8.6282148 0.85691196 5 5
5.4505825 -13.336737 0.81327564 13 9
4.2252426 -13.90836 0.71216595 4 8
3.2914696 -17.238688 0.38502625 13 7
1.7158781 -16.54364 0.34910893 7 6
5.4219174 -13.342327 1.1458613 13 13
4.3015857 -14.142262 1.0374529 14 12
3.5993907 -20.084404 0.64409584 18 11
1.7490942 -17.523941 0.68285751 10 10
5.4202065 -13.336627 1.4632167 14 17
